# .PCD v0.7 - Point Cloud Data file format
VERSION 0.7
FIELDS x y z rgba
SIZE 4 4 4 4
TYPE F F F U
COUNT 1 1 1 1
WIDTH 1146
HEIGHT 1
VIEWPOINT 0 0 0 1 0 0 0
POINTS 1146
DATA ascii
-0.10683591 0.21847977 0.77399999 4294901502
-0.10371332 0.21819749 0.773 4294901502
-0.10098938 0.21876204 0.77499998 4294901502
-0.098376445 0.21960886 0.778 4294901502
-0.096108109 0.22130249 0.78399998 4294901502
-0.093199812 0.22158478 0.78500003 4294901502
-0.095464282 0.25150576 0.89099997 4280945944
-0.092643827 0.25319943 0.89700001 4281800455
-0.089478761 0.25404623 0.89999998 4282128390
-0.086099423 0.25432852 0.90100002 4281473798
-0.082895748 0.25517532 0.90399998 4282064397
-0.079668917 0.25602216 0.90700001 4282197013
-0.076418921 0.25686899 0.91000003 4282393617
-0.023466216 0.29836321 1.057 4282130969
-0.019440154 0.29921001 1.0599999 4281736724
-0.015390926 0.30005682 1.063 4281408515
-0.011318533 0.30090365 1.066 4281341186
-0.0072635137 0.30344415 1.075 4280420866
-0.0031332048 0.30542004 1.082 4280224771
0.0010472974 0.30626687 1.085 4280946442
0.0052702702 0.30824277 1.092 4280880641
0.0095212348 0.30937186 1.096 4281142530
0.013803089 0.31050098 1.1 4281141509
0.018197875 0.31304142 1.109 4281075483
0.022560811 0.31417054 1.113 4280879873
0.026882239 0.3144528 1.114 4280814082
0.031435329 0.31699327 1.123 4281338369
0.035930503 0.31840464 1.128 4281273090
0.040535714 0.32038054 1.135 4281076487
0.045155406 0.3220742 1.141 4281207561
0.049951736 0.32461464 1.15 4281010179
0.054581083 0.32574376 1.154 4280551937
0.059497103 0.3282842 1.163 4281010689
0.064317569 0.32997784 1.169 4281076738
0.069184363 0.33167148 1.175 4281601794
0.074097492 0.33336511 1.181 4281076737
0.079056956 0.33505878 1.187 4280946691
0.084203668 0.33731696 1.1950001 4281142278
0.08941216 0.33957514 1.2029999 4281731585
0.094447874 0.34098649 1.2079999 4281403905
0.099440157 0.34211561 1.212 4280944386
0.10480695 0.34437379 1.22 4280944387
0.11032528 0.34691426 1.229 4280814597
0.11619402 0.35030156 1.2410001 4280224775
0.12147298 0.35171291 1.2460001 4281009665
0.1268919 0.35340655 1.252 4280813314
0.13246235 0.35538244 1.2589999 4280552195
0.13830502 0.35792294 1.268 4280421125
0.14410424 0.36018112 1.276 4280813574
0.15078282 0.36441523 1.291 4281599489
0.15612935 0.36526206 1.294 4279830273
0.16137452 0.36582658 1.296 4280420097
0.16766216 0.36864933 1.306 4280159233
0.17402703 0.37147206 1.316 4280485377
0.18101352 0.37542391 1.33 4281075977
0.18726835 0.37768209 1.3380001 4280551686
0.19315349 0.37909347 1.3430001 4279307009
0.200111 0.38248074 1.355 4280222977
0.20685811 0.38530347 1.365 4280485377
0.21290541 0.38671485 1.37 4280683009
0.21915059 0.38840848 1.376 4280617217
0.22511584 0.38953757 1.38 4280223748
0.23144595 0.39123124 1.386 4279960578
0.23696814 0.39151347 1.387 4278780161
0.37362164 0.57809639 2.0480001 4279768323
0.38152897 0.57809639 2.0480001 4282133253
0.38506275 0.57160407 2.0250001 4282327565
0.39055309 0.56821674 2.013 4281670405
0.39832529 0.56821674 2.013 4281473799
0.4060975 0.56821674 2.013 4281344016
0.41633689 0.57160407 2.0250001 4281476101
0.42415541 0.57160407 2.0250001 4281738245
0.42984074 0.56878132 2.0150001 4281999618
0.4371863 0.56821674 2.013 4281933318
0.44495851 0.56821674 2.013 4281605637
0.45228088 0.56765217 2.0109999 4281409025
0.46050289 0.56821674 2.013 4281277187
0.46804249 0.56793451 2.0120001 4281079313
0.47604731 0.56821674 2.013 4281078829
0.48381951 0.56821674 2.013 4281210124
0.49183589 0.56849903 2.0139999 4281080323
0.49663517 0.56511176 2.0020001 4280947462
0.50436491 0.56511176 2.0020001 4281473037
0.5090251 0.56172448 1.99 4281408018
0.51670849 0.56172448 1.99 4281410575
0.52439189 0.56172448 1.99 4281671431
0.53073841 0.56031311 1.985 4281998607
0.53975868 0.56172448 1.99 4281343758
0.54744208 0.56172448 1.99 4281213698
0.55819398 0.56482947 2.0009999 4281865753
0.5662027 0.56511176 2.0020001 4281275668
0.57049227 0.56172448 1.99 4281211143
0.58050001 0.56398267 1.998 4281078791
0.58585906 0.56172448 1.99 4281144580
0.59354246 0.56172448 1.99 4281341956
0.60122585 0.56172448 1.99 4281015051
0.60890925 0.56172448 1.99 4281015046
0.61659265 0.56172448 1.99 4280949763
0.62427604 0.56172448 1.99 4280883971
0.63195944 0.56172448 1.99 4280818177
0.63964283 0.56172448 1.99 4280950017
0.64732623 0.56172448 1.99 4280686083
0.65500963 0.56172448 1.99 4280555017
0.66269302 0.56172448 1.99 4280947462
0.67037648 0.56172448 1.99 4281209352
0.68214869 0.56511176 2.0020001 4281013256
0.68608785 0.56200677 1.9910001 4280948746
0.69342667 0.56172448 1.99 4281340675
0.70111006 0.56172448 1.99 4281276679
0.70879346 0.56172448 1.99 4281014036
0.71647686 0.56172448 1.99 4280687365
0.72015733 0.55861944 1.979 4280817671
0.73074037 0.56087762 1.987 4280948238
0.73915541 0.5614422 1.989 4280818182
0.74645948 0.56115991 1.988 4280621318
0.75489384 0.56172448 1.99 4280556033
0.75836194 0.55861944 1.979 4280424195
0.76174521 0.55551445 1.9680001 4280883457
0.77168918 0.55720806 1.974 4280489985
0.77733684 0.55579674 1.969 4281146113
0.78892565 0.55861944 1.979 4280424961
0.79656661 0.55861944 1.979 4280489477
0.81030309 0.56285357 1.994 4280423434
0.81348938 0.55974859 1.983 4280488711
0.81948936 0.55861944 1.979 4280749831
0.82545853 0.55749035 1.975 4280881159
0.83013129 0.55551445 1.9680001 4280750596
0.83645272 0.55466765 1.965 4280619019
0.84532821 0.55551445 1.9680001 4280093957
0.85292667 0.55551445 1.9680001 4280159750
0.86052513 0.55551445 1.9680001 4280355846
0.86812359 0.55551445 1.9680001 4279897355
0.87572205 0.55551445 1.9680001 4280028674
0.88332051 0.55551445 1.9680001 4279964161
0.89091897 0.55551445 1.9680001 4279833857
0.89760423 0.55494988 1.966 4279570433
0.90013033 0.55184489 1.955 4279634946
0.90349996 0.54930443 1.946 4280551188
0.90633202 0.54648167 1.936 4282065947
0.91380692 0.54648167 1.936 4283251247
0.92128187 0.54648167 1.936 4283578391
0.92923653 0.54676396 1.937 4283578141
0.94106758 0.54930443 1.946 4283314950
0.95394307 0.55240947 1.957 4281868806
0.96149904 0.55240947 1.957 4280160769
0.97202611 0.55410308 1.9630001 4280093445
0.9776091 0.55297399 1.959 4279830799
0.97511488 0.54732853 1.939 4279307521
0.97854728 0.54507035 1.931 4279176705
0.98396045 0.54394126 1.927 4279831299
0.99603087 0.54648167 1.936 4279700742
1.0035058 0.54648167 1.936 4279897345
1.0151583 0.54873991 1.944 4278783489
1.022138 0.54845762 1.943 4278979841
1.0259305 0.54648167 1.936 4279111169
-0.42098549 0.21259248 0.74299997 4294901502
-0.41867954 0.21287861 0.74400002 4294901502
-0.41468918 0.21230635 0.74199998 4294901502
-0.41126931 0.21202023 0.741 4294901502
-0.40840831 0.21202023 0.741 4294901502
-0.405 0.2117341 0.74000001 4294901502
-0.40105596 0.21116184 0.73799998 4294901502
-0.39766699 0.21087572 0.73699999 4294901502
-0.39375001 0.21030347 0.73500001 4294901502
-0.39144403 0.2105896 0.736 4294901502
-0.39124227 0.21202023 0.741 4294901502
-0.38890541 0.21230635 0.74199998 4294901502
-0.3865608 0.21259248 0.74299997 4294901502
-0.38059363 0.21087572 0.73699999 4294901502
-0.37928572 0.2117341 0.74000001 4294901502
-0.37693727 0.21202023 0.741 4294901502
-0.37407625 0.21202023 0.741 4294901502
-0.3717162 0.21230635 0.74199998 4294901502
-0.36835423 0.21202023 0.741 4294901502
-0.36549324 0.21202023 0.741 4294901502
-0.36116409 0.21116184 0.73799998 4294901502
-0.35831466 0.21116184 0.73799998 4294901502
-0.35931852 0.21345086 0.74599999 4294901502
-0.35691601 0.21373698 0.74699998 4294901502
-0.35118821 0.21202023 0.741 4294901502
-0.34785715 0.2117341 0.74000001 4294901502
-0.34546623 0.21202023 0.741 4294901502
-0.34352991 0.21259248 0.74299997 4294901502
-0.3406612 0.21259248 0.74299997 4294901502
-0.33733782 0.21230635 0.74199998 4294901502
-0.33447295 0.21230635 0.74199998 4294901502
-0.33250195 0.21287861 0.74400002 4294901502
-0.32874325 0.21230635 0.74199998 4294901502
-0.32851353 0.21402313 0.74800003 4294901502
-0.32693145 0.21488149 0.75099999 4294901502
-0.32273746 0.21402313 0.74800003 4294901502
-0.32113224 0.21488149 0.75099999 4294901502
-0.31696141 0.21402313 0.74800003 4294901502
-0.3128137 0.21316475 0.745 4294901502
-0.31035328 0.21345086 0.74599999 4294901502
-0.30747297 0.21345086 0.74599999 4294901502
-0.30418438 0.21316475 0.745 4294901502
-0.30252126 0.21402313 0.74800003 4294901502
-0.30003378 0.21430925 0.74900001 4294901502
-0.29714191 0.21430925 0.74900001 4294901502
-0.29189286 0.21259248 0.74299997 4294901502
-0.29174709 0.21459538 0.75 4294901502
-0.28962162 0.21516763 0.75199997 4294901502
-0.28709942 0.21545376 0.75300002 4294901502
-0.28305984 0.21459538 0.75 4294901502
-0.27979055 0.21430925 0.74900001 4294901502
-0.27652895 0.21402313 0.74800003 4294901502
-0.27364093 0.21402313 0.74800003 4294901502
-0.27220076 0.21516763 0.75199997 4294901502
-0.26965541 0.21545376 0.75300002 4294901502
-0.26710233 0.21573989 0.75400001 4294901502
-0.26419112 0.21573989 0.75400001 4294901502
-0.2609334 0.21545376 0.75300002 4294901502
-0.25802606 0.21545376 0.75300002 4294901502
-0.25545752 0.21573989 0.75400001 4294901502
-0.25120658 0.21459538 0.75 4294901502
-0.24897297 0.21516763 0.75199997 4294901502
-0.24606949 0.21516763 0.75199997 4294901502
-0.24478284 0.21659827 0.75700003 4294901502
-0.24217954 0.2168844 0.75800002 4294901502
-0.23956853 0.21717052 0.759 4294901502
-0.23632626 0.2168844 0.75800002 4294901502
-0.23309171 0.21659827 0.75700003 4294901502
-0.23077703 0.21717052 0.759 4294901502
-0.22784653 0.21717052 0.759 4294901502
-0.2246197 0.2168844 0.75800002 4294901502
-0.22110811 0.21631214 0.75599998 4294901502
-0.2184778 0.21659827 0.75700003 4294901502
-0.21640927 0.21745664 0.75999999 4294901502
-0.21431758 0.21831504 0.76300001 4294901502
-0.2110946 0.2180289 0.76200002 4294901502
-0.20787933 0.21774277 0.76099998 4294901502
-0.20467182 0.21745664 0.75999999 4294901502
-0.20147201 0.21717052 0.759 4294901502
-0.19801834 0.21659827 0.75700003 4294901502
-0.19535328 0.2168844 0.75800002 4294901502
-0.19268051 0.21717052 0.759 4294901502
-0.18925001 0.21659827 0.75700003 4294901502
-0.18681949 0.21717052 0.759 4294901502
-0.18364672 0.2168844 0.75800002 4294901502
-0.18167375 0.2180289 0.76200002 4294901502
-0.17920077 0.21860115 0.764 4294901502
-0.17625096 0.21860115 0.764 4294901502
-0.17330116 0.21860115 0.764 4294901502
-0.16990541 0.2180289 0.76200002 4294901502
-0.1667442 0.21774277 0.76099998 4294901502
-0.16445173 0.21860115 0.764 4294901502
-0.16171332 0.21888728 0.76499999 4294901502
-0.15896718 0.2191734 0.76599997 4294901502
-0.15600964 0.2191734 0.76599997 4294901502
-0.15245271 0.21831504 0.76300001 4294901502
-0.14931081 0.2180289 0.76200002 4294901502
-0.14656082 0.21831504 0.76300001 4294901502
-0.14323841 0.21774277 0.76099998 4294901502
-0.14085329 0.21860115 0.764 4294901502
-0.13808398 0.21888728 0.76499999 4294901502
-0.13530694 0.2191734 0.76599997 4294901502
-0.13234942 0.2191734 0.76599997 4294901502
-0.12956081 0.21945955 0.76700002 4294901502
-0.12692954 0.22003178 0.76899999 4294901502
-0.12363803 0.21945955 0.76700002 4294901502
-0.1205193 0.2191734 0.76599997 4294901502
-0.1174083 0.21888728 0.76499999 4294901502
-0.11505309 0.22003178 0.76899999 4294901502
-0.11222973 0.22031792 0.76999998 4294901502
-0.10954054 0.22089018 0.77200001 4294901502
-0.10628378 0.22031792 0.76999998 4294901502
-0.10357916 0.22089018 0.77200001 4294901502
-0.10085907 0.22146243 0.77399999 4294901502
-0.097870655 0.22146243 0.77399999 4294901502
-0.094514482 0.22060405 0.77100003 4294901502
-0.092843629 0.22375144 0.78200001 4294901502
-0.090283789 0.22489595 0.78600001 4294901502
-0.092953667 0.25751445 0.89999998 4282061318
-0.089478761 0.25751445 0.89999998 4282784773
-0.086194985 0.25808671 0.90200001 4282851847
-0.082895748 0.25865895 0.90399998 4282852627
-0.031329151 0.29957515 1.0470001 4282589191
-0.027364863 0.30043352 1.05 4282654472
-0.023377413 0.30129191 1.053 4281866001
-0.019421816 0.30300868 1.059 4281339402
-0.015347489 0.30329478 1.0599999 4280947713
-0.011307916 0.30472544 1.0650001 4280947201
-0.0072905407 0.3087312 1.079 4280813825
-0.0031361002 0.3098757 1.0829999 4280815106
0.0010472974 0.31044799 1.085 4281078535
0.0052702702 0.31245086 1.092 4281209089
0.0095212348 0.31359535 1.096 4280946178
0.013828185 0.31531215 1.102 4280880130
0.018181467 0.31702891 1.108 4280880149
0.022560811 0.31845954 1.113 4280879361
0.026954632 0.31960404 1.117 4280748290
0.031463318 0.32160693 1.124 4280355587
0.035994209 0.3233237 1.13 4280813834
0.040642858 0.32561272 1.138 4281075458
0.04519498 0.32675722 1.142 4281206792
0.050082047 0.32990462 1.153 4281207554
0.054675676 0.33076301 1.156 4280946437
0.059548263 0.33305204 1.164 4280880897
0.064262547 0.33419654 1.168 4281208065
0.069184363 0.3361994 1.175 4281207041
0.074034743 0.33763003 1.1799999 4281140993
0.079256758 0.34049135 1.1900001 4280946434
0.084203668 0.34192199 1.1950001 4280814853
0.08941216 0.34421098 1.2029999 4281141505
0.094369695 0.34535551 1.207 4281075201
0.099768333 0.34793061 1.216 4280747009
0.10480695 0.34907514 1.22 4280812801
0.11032528 0.35165027 1.229 4280814337
0.11628764 0.35536993 1.242 4280880641
0.12186293 0.35765895 1.25 4281010177
0.12719594 0.35908958 1.255 4280878849
0.13246235 0.36023408 1.2589999 4280289793
0.13830502 0.36280924 1.268 4280487169
0.14376545 0.36423987 1.273 4280616961
0.15078282 0.36939019 1.291 4280683265
0.15612935 0.37024856 1.294 4280683265
0.16162355 0.37139305 1.298 4280223745
0.16817567 0.37482658 1.3099999 4280224769
0.17415927 0.37682948 1.317 4280485633
0.18074131 0.37997687 1.3279999 4281337348
0.18726835 0.38283816 1.3380001 4280748547
0.19344112 0.38484105 1.345 4280093441
0.200111 0.38770232 1.355 4280420097
0.20685811 0.39056358 1.365 4280681985
0.21290541 0.39199421 1.37 4280878849
0.21915059 0.393711 1.376 4280747521
0.22527896 0.39514163 1.381 4280157441
0.23044401 0.3948555 1.38 4279960321
0.24363127 0.40801734 1.426 4278649089
0.36589286 0.58627456 2.049 4278386945
0.37161484 0.58284104 2.0369999 4279835137
0.37947971 0.58284104 2.0369999 4282329098
0.38506275 0.57940751 2.0250001 4282261255
0.3928813 0.57940751 2.0250001 4281933313
0.40069982 0.57940751 2.0250001 4281605907
0.40851834 0.57940751 2.0250001 4281345034
0.41633689 0.57940751 2.0250001 4281542666
0.42415541 0.57940751 2.0250001 4281738505
0.42941409 0.57597399 2.013 4281934607
0.4371863 0.57597399 2.013 4282065668
0.44495851 0.57597399 2.013 4281737729
0.45025676 0.57282662 2.0020001 4281540353
0.4579865 0.57282662 2.0020001 4281277185
0.46571624 0.57282662 2.0020001 4281275396
0.47368243 0.57311273 2.003 4281143301
0.48309845 0.57511562 2.01 4281341194
0.48988226 0.57397109 2.006 4280816643
0.49663517 0.57282662 2.0020001 4280883977
0.50436491 0.57282662 2.0020001 4280688651
0.5090251 0.56939304 1.99 4281343758
0.51670849 0.56939304 1.99 4281409296
0.52439189 0.56939304 1.99 4281671940
0.53207529 0.56939304 1.99 4281932291
0.53975868 0.56939304 1.99 4281474561
0.54744208 0.56939304 1.99 4281014786
0.55847299 0.57282662 2.0020001 4281734671
0.5662027 0.57282662 2.0020001 4281209354
0.57393247 0.57282662 2.0020001 4281210883
0.58137161 0.57254046 2.0009999 4281474562
0.58585906 0.56939304 1.99 4281277697
0.59354246 0.56939304 1.99 4281605634
0.60122585 0.56939304 1.99 4281148945
0.60890925 0.56939304 1.99 4281082378
0.61659265 0.56939304 1.99 4281213204
0.62427604 0.56939304 1.99 4281277191
0.63195944 0.56939304 1.99 4281212929
0.63964283 0.56939304 1.99 4281081345
0.64732623 0.56939304 1.99 4281015555
0.65533882 0.5696792 1.9910001 4280555276
0.66569012 0.5719682 1.999 4280620553
0.67441893 0.57282662 2.0020001 4281276420
0.68521523 0.57540172 2.0109999 4281078290
0.6898784 0.57282662 2.0020001 4280619806
0.69342667 0.56939304 1.99 4280751625
0.70111006 0.56939304 1.99 4281145858
0.70879346 0.56939304 1.99 4281078530
0.71647686 0.56939304 1.99 4280882945
0.72416025 0.56939304 1.99 4280882953
0.73184365 0.56939304 1.99 4281144595
0.73952705 0.56939304 1.99 4280816654
0.74721044 0.56939304 1.99 4279769357
0.75489384 0.56939304 1.99 4281145857
0.76257724 0.56939304 1.99 4280423938
0.76600289 0.56624568 1.979 4280622084
0.77364379 0.56624568 1.979 4280360452
0.78049517 0.56567341 1.977 4280490497
0.78533787 0.56367052 1.97 4280358145
0.79656661 0.56624568 1.979 4280554760
0.80867761 0.56939304 1.99 4279964949
0.81389958 0.56767631 1.984 4279638283
0.82197392 0.56796241 1.985 4280686339
0.82545853 0.56510115 1.975 4281209615
0.83013129 0.56309825 1.9680001 4280749578
0.83772975 0.56309825 1.9680001 4280815637
0.84532821 0.56309825 1.9680001 4280421897
0.85292667 0.56309825 1.9680001 4280552194
0.86052513 0.56309825 1.9680001 4280291843
0.86812359 0.56309825 1.9680001 4279309825
0.87572205 0.56309825 1.9680001 4279506945
0.87928087 0.56052309 1.959 4279440129
0.88684458 0.56052309 1.959 4280094721
0.8980608 0.56281215 1.967 4280095745
0.90105116 0.55995089 1.957 4279897092
0.9076786 0.55937862 1.955 4280027924
0.90633202 0.5539422 1.936 4281937168
0.91333491 0.55365604 1.9349999 4283512601
0.92128187 0.5539422 1.936 4283709455
0.92875677 0.5539422 1.936 4283645966
0.94396913 0.55852026 1.952 4282988033
0.95394307 0.55995089 1.957 4281672449
0.96248168 0.56052309 1.959 4279962369
0.97450197 0.56309825 1.9680001 4279764999
0.97810811 0.56080925 1.96 4279568151
0.98316121 0.55937862 1.955 4279373058
0.98108107 0.5539422 1.936 4278980097
0.98855597 0.5539422 1.936 4278848261
0.99603087 0.5539422 1.936 4278912779
1.0162027 0.55680346 1.946 4278979585
1.022138 0.5559451 1.943 4278914305
1.0248706 0.55336994 1.934 4279110657
-0.4170087 0.21197592 0.73100001 4294901502
-0.4136197 0.21168594 0.73000002 4294901502
-0.40911293 0.210816 0.727 4294901502
-0.4085415 0.21197592 0.73100001 4294901502
-0.4057191 0.21197592 0.73100001 4294901502
-0.40289673 0.21197592 0.73100001 4294901502
-0.40116891 0.21255587 0.73299998 4294901502
-0.39833879 0.21255587 0.73299998 4294901502
-0.39442953 0.21197592 0.73100001 4294901502
-0.39107144 0.21168594 0.73000002 4294901502
-0.38825291 0.21168594 0.73000002 4294901502
-0.38543436 0.21168594 0.73000002 4294901502
-0.3836641 0.21226589 0.73199999 4294901502
-0.38239866 0.21313584 0.73500001 4294901502
-0.37852797 0.21255587 0.73299998 4294901502
-0.37569788 0.21255587 0.73299998 4294901502
-0.37337646 0.21284586 0.73400003 4294901502
-0.37104732 0.21313584 0.73500001 4294901502
-0.36871043 0.21342582 0.736 4294901502
-0.36388031 0.21226589 0.73199999 4294901502
-0.36154729 0.21255587 0.73299998 4294901502
-0.35969594 0.21313584 0.73500001 4294901502
-0.3568581 0.21313584 0.73500001 4294901502
-0.35450193 0.21342582 0.736 4294901502
-0.35118243 0.21313584 0.73500001 4294901502
-0.34834459 0.21313584 0.73500001 4294901502
-0.34550676 0.21313584 0.73500001 4294901502
-0.34360135 0.21371579 0.73699999 4294901502
-0.34075579 0.21371579 0.73699999 4294901502
-0.33836871 0.21400577 0.73799998 4294901502
-0.33597395 0.21429577 0.73900002 4294901502
-0.33176833 0.21342582 0.736 4294901502
-0.32892665 0.21342582 0.736 4294901502
-0.32475579 0.21255587 0.73299998 4294901502
-0.32368243 0.21371579 0.73699999 4294901502
-0.32127219 0.21400577 0.73799998 4294901502
-0.31842276 0.21400577 0.73799998 4294901502
-0.31642857 0.21458575 0.74000001 4294901502
-0.31357142 0.21458575 0.74000001 4294901502
-0.31113416 0.21487573 0.741 4294901502
-0.30910519 0.21545568 0.74299997 4294901502
-0.30500001 0.21458575 0.74000001 4294901502
-0.30295944 0.2151657 0.74199998 4294901502
-0.29928571 0.21458575 0.74000001 4294901502
-0.29642856 0.21458575 0.74000001 4294901502
-0.29476157 0.21545568 0.74299997 4294901502
-0.2915 0.2151657 0.74199998 4294901502
-0.28902411 0.21545568 0.74299997 4294901502
-0.2861554 0.21545568 0.74299997 4294901502
-0.28481176 0.2166156 0.74699998 4294901502
-0.2815502 0.21632563 0.74599999 4294901502
-0.27829632 0.21603565 0.745 4294901502
-0.27505019 0.21574567 0.74400002 4294901502
-0.27181175 0.21545568 0.74299997 4294901502
-0.269667 0.21603565 0.745 4294901502
-0.26822299 0.21719557 0.74900001 4294901502
-0.26533109 0.21719557 0.74900001 4294901502
-0.26243919 0.21719557 0.74900001 4294901502
-0.26024035 0.21777552 0.75099999 4294901502
-0.25631276 0.21690559 0.74800003 4294901502
-0.25444111 0.21777552 0.75099999 4294901502
-0.25020173 0.2166156 0.74699998 4294901502
-0.24764866 0.21690559 0.74800003 4294901502
-0.24476063 0.21690559 0.74800003 4294901502
-0.24219595 0.21719557 0.74900001 4294901502
-0.23994304 0.21777552 0.75099999 4294901502
-0.23799035 0.21864547 0.75400001 4294901502
-0.23570269 0.21922542 0.75599998 4294901502
-0.22895271 0.21835549 0.75300002 4294901502
-0.22634557 0.21864547 0.75400001 4294901502
-0.22284169 0.2180655 0.75199997 4294901502
-0.21993822 0.2180655 0.75199997 4294901502
-0.21645753 0.21748555 0.75 4294901502
-0.21413127 0.2180655 0.75199997 4294901502
-0.21207047 0.21893544 0.755 4294901502
-0.20915541 0.21893544 0.755 4294901502
-0.20624034 0.21893544 0.755 4294901502
-0.20332529 0.21893544 0.755 4294901502
-0.19987935 0.21835549 0.75300002 4294901502
-0.19723359 0.21864547 0.75400001 4294901502
-0.19458011 0.21893544 0.755 4294901502
-0.19166505 0.21893544 0.755 4294901502
-0.18875 0.21893544 0.755 4294901502
-0.18558881 0.21864547 0.75400001 4294901502
-0.18291989 0.21893544 0.755 4294901502
-0.18000482 0.21893544 0.755 4294901502
-0.17802799 0.22009538 0.759 4294901502
-0.17532818 0.22038536 0.75999999 4294901502
-0.17216699 0.22009538 0.759 4294901502
-0.16901352 0.2198054 0.75800002 4294901502
-0.16586776 0.21951543 0.75700003 4294901502
-0.16337548 0.22009538 0.759 4294901502
-0.16065636 0.22038536 0.75999999 4294901502
-0.15772201 0.22038536 0.75999999 4294901502
-0.15458398 0.22009538 0.759 4294901502
-0.15145367 0.2198054 0.75800002 4294901502
-0.14872298 0.22009538 0.759 4294901502
-0.14598456 0.22038536 0.75999999 4294901502
-0.14286196 0.22009538 0.759 4294901502
-0.13993147 0.22009538 0.759 4294901502
-0.13700096 0.22009538 0.759 4294901502
-0.13407047 0.22009538 0.759 4294901502
-0.13148552 0.22067533 0.76099998 4294901502
-0.12871622 0.22096533 0.76200002 4294901502
-0.12577413 0.22096533 0.76200002 4294901502
-0.12283205 0.22096533 0.76200002 4294901502
-0.11988997 0.22096533 0.76200002 4294901502
-0.11633398 0.2198054 0.75800002 4294901502
-0.11370656 0.22038536 0.75999999 4294901502
-0.11106371 0.22096533 0.76200002 4294901502
-0.10826351 0.2212553 0.76300001 4294901502
-0.1054556 0.22154528 0.764 4294901502
-0.10237163 0.2212553 0.76300001 4294901502
-0.099555984 0.22154528 0.764 4294901502
-0.09660618 0.22154528 0.764 4294901502
-0.094269305 0.22299518 0.76899999 4294901502
-0.091418914 0.22328515 0.76999998 4294901502
-0.089020267 0.22473507 0.77499998 4294901502
-0.046410233 0.29665029 1.023 4282657030
-0.042584945 0.29752025 1.026 4282525210
-0.038962353 0.30013004 1.035 4282328328
-0.035135135 0.30157995 1.04 4281935120
-0.031239383 0.30273989 1.044 4281473794
-0.027338803 0.3041898 1.049 4281339395
-0.023377413 0.30534971 1.053 4281338885
-0.019385137 0.30650964 1.057 4281272834
-0.015333012 0.3070896 1.059 4281142017
-0.011276063 0.30795956 1.062 4280946689
-0.0072972975 0.31317919 1.08 4280748033
-0.0031361002 0.31404912 1.0829999 4280421377
0.0010472974 0.31462911 1.085 4280618498
0.0052702702 0.31665897 1.092 4280946177
0.0095299231 0.31810886 1.097 4280553217
0.013828185 0.31955877 1.102 4280684033
0.018165058 0.32100868 1.107 4281012227
0.022560811 0.32274857 1.113 4280355329
0.026954632 0.32390848 1.117 4280290052
0.031547297 0.32680827 1.127 4280684035
0.035994209 0.32767823 1.13 4281731336
0.040642858 0.32999808 1.138 4281010689
0.045274135 0.33173797 1.1440001 4281207297
0.050082047 0.33434778 1.153 4281338882
0.054722972 0.33550769 1.1569999 4280486404
0.059599418 0.33782753 1.165 4280681985
0.064317569 0.33898747 1.169 4281534209
0.069184363 0.34072736 1.175 4281272577
0.074222974 0.3430472 1.183 4280880898
0.079256758 0.3450771 1.1900001 4280553729
0.084485523 0.34768689 1.199 4280552705
0.08941216 0.34884679 1.2029999 4281010433
0.094760619 0.35145664 1.212 4280945153
0.099768333 0.35261655 1.216 4280486658
0.10515058 0.35493642 1.224 4280813573
0.11050482 0.35696626 1.2309999 4280749572
0.11666217 0.361316 1.2460001 4280946177
0.12186293 0.3624759 1.25 4280880129
0.12739864 0.36450577 1.257 4281010945
0.13246235 0.36508572 1.2589999 4280879873
0.13830502 0.36769557 1.268 4280684289
0.1436525 0.36885548 1.272 4280552193
0.15078282 0.37436512 1.291 4280029185
0.15612935 0.37523508 1.294 4280355585
0.16212162 0.37755492 1.302 4280486145
0.16817567 0.37987474 1.3099999 4280093185
0.17455599 0.38277459 1.3200001 4280486145
0.18074131 0.3850944 1.3279999 4280879361
0.18726835 0.38799423 1.3380001 4280551937
0.19344112 0.3900241 1.345 4280026881
0.200111 0.39292389 1.355 4280420365
0.20610039 0.3943738 1.36 4280748039
0.21290541 0.3972736 1.37 4280813825
0.21978764 0.4001734 1.38 4280550913
0.22446333 0.39901349 1.376 4279831041
0.23044401 0.4001734 1.38 4279305217
0.24226448 0.41119269 1.418 4278518017
0.36767858 0.59707034 2.059 4278321665
0.37161484 0.59069073 2.0369999 4279966726
0.37947971 0.59069073 2.0369999 4282722841
0.38506275 0.58721101 2.0250001 4282656792
0.3928813 0.58721101 2.0250001 4282066435
0.40069982 0.58721101 2.0250001 4281542659
0.40851834 0.58721101 2.0250001 4281804035
0.41633689 0.58721101 2.0250001 4282001672
0.42415541 0.58721101 2.0250001 4281936662
0.42941409 0.58373123 2.013 4282132531
0.4371863 0.58373123 2.013 4282264086
0.44495851 0.58373123 2.013 4282001676
0.45025676 0.58054143 2.0020001 4282132750
0.4579865 0.58054143 2.0020001 4281736968
0.46571624 0.58054143 2.0020001 4281670412
0.47510135 0.58257133 2.0090001 4281538836
0.48381951 0.58373123 2.013 4281605147
0.49134752 0.58344126 2.0120001 4281409808
0.49911585 0.58344126 2.0120001 4281344006
0.50537258 0.58170134 2.006 4281018628
0.51183879 0.5802514 2.0009999 4281344780
0.51670849 0.57706165 1.99 4281605900
0.52439189 0.57706165 1.99 4281736450
0.53207529 0.57706165 1.99 4281867778
0.53975868 0.57706165 1.99 4281540612
0.55074328 0.58054143 2.0020001 4281146884
0.55847299 0.58054143 2.0020001 4281276694
0.5662027 0.58054143 2.0020001 4281408273
0.57393247 0.58054143 2.0020001 4281146373
0.57875675 0.57764161 1.992 4281145348
0.58585906 0.57706165 1.99 4281016328
0.59354246 0.57706165 1.99 4281213188
0.60122585 0.57706165 1.99 4281278977
0.60890925 0.57706165 1.99 4281082369
0.61659265 0.57706165 1.99 4280886316
0.62427604 0.57706165 1.99 4281671437
0.63195944 0.57706165 1.99 4281476098
0.63964283 0.57706165 1.99 4280819971
0.65025383 0.57967144 1.999 4281146881
0.65533882 0.57735163 1.9910001 4281474057
0.66668922 0.58054143 2.0020001 4281540099
0.67441893 0.58054143 2.0020001 4281605635
0.68555599 0.58344126 2.0120001 4281341975
0.69297969 0.58315122 2.0109999 4281276422
0.69412357 0.57764161 1.992 4281080588
0.70428085 0.57967144 1.999 4280884226
0.711999 0.57967144 1.999 4280555269
0.72043723 0.5802514 2.0009999 4280751620
0.72525191 0.57793158 1.993 4280817413
0.73184365 0.57706165 1.99 4280817158
0.73952705 0.57706165 1.99 4280882695
0.74721044 0.57706165 1.99 4280162060
0.75792861 0.57938153 1.998 4280686594
0.76717573 0.58054143 2.0020001 4280227843
0.77374417 0.57967144 1.999 4280555784
0.7795077 0.57822156 1.994 4280556551
0.78128475 0.57387185 1.979 4280097537
0.78454053 0.57068211 1.9680001 4280294657
0.79294401 0.57126206 1.97 4280358915
0.80461389 0.57416183 1.98 4280031503
0.81184846 0.57387185 1.979 4279704072
0.81948936 0.57387185 1.979 4280359428
0.82713032 0.57387185 1.979 4280621079
0.83392763 0.5732919 1.977 4280161546
0.83772975 0.57068211 1.9680001 4280029954
0.84532821 0.57068211 1.9680001 4280553729
0.8568272 0.5732919 1.977 4280488194
0.86358589 0.57271194 1.975 4280421633
0.86591798 0.56923217 1.9630001 4280421634
0.86771238 0.56546247 1.95 4280552193
0.87434363 0.56488246 1.948 4279569665
0.88231754 0.56517243 1.949 4279569930
0.89440829 0.56807226 1.959 4279765761
0.90105116 0.56749231 1.957 4279502599
0.90860713 0.56749231 1.957 4280162072
0.91101348 0.5643025 1.946 4282069266
0.91380692 0.56140268 1.936 4283314458
0.92128187 0.56140268 1.936 4283843088
0.92875677 0.56140268 1.936 4283777049
0.94760621 0.56372255 1.944 4281870337
0.95216405 0.56198263 1.938 4279503873
0.98260134 0.56227267 1.939 4279240196
1.0232809 0.5599528 1.931 4279831041
-0.4152973 0.21391137 0.72799999 4294901502
-0.41248646 0.21391137 0.72799999 4294901502
-0.40742469 0.21273603 0.72399998 4294901502
-0.40462932 0.21273603 0.72399998 4294901502
-0.40238902 0.21302988 0.72500002 4294901502
-0.40014094 0.2133237 0.72600001 4294901502
-0.39733785 0.2133237 0.72600001 4294901502
-0.39616504 0.21420519 0.72899997 4294901502
-0.39227122 0.21361753 0.727 4294901502
-0.38999999 0.21391137 0.72799999 4294901502
-0.38718918 0.21391137 0.72799999 4294901502
-0.38332239 0.2133237 0.72600001 4294901502
-0.3805193 0.2133237 0.72600001 4294901502
-0.38031757 0.21479288 0.73100001 4294901502
-0.37646234 0.21420519 0.72899997 4294901502
-0.37313512 0.21391137 0.72799999 4294901502
-0.37083301 0.21420519 0.72899997 4294901502
-0.36801833 0.21420519 0.72899997 4294901502
-0.36520365 0.21420519 0.72899997 4294901502
-0.3618919 0.21391137 0.72799999 4294901502
-0.35957432 0.21420519 0.72899997 4294901502
-0.35675964 0.21420519 0.72899997 4294901502
-0.35394496 0.21420519 0.72899997 4294901502
-0.35113031 0.21420519 0.72899997 4294901502
-0.34783784 0.21391137 0.72799999 4294901502
-0.34597492 0.21449904 0.73000002 4294901502
-0.34362644 0.21479288 0.73100001 4294901502
-0.34080407 0.21479288 0.73100001 4294901502
-0.33705693 0.21420519 0.72899997 4294901502
-0.33378378 0.21391137 0.72799999 4294901502
-0.3300637 0.2133237 0.72600001 4294901502
-0.32906371 0.21449904 0.73000002 4294901502
-0.32624519 0.21449904 0.73000002 4294901502
-0.32298359 0.21420519 0.72899997 4294901502
-0.32060811 0.21449904 0.73000002 4294901502
-0.31822491 0.21479288 0.73100001 4294901502
-0.31540251 0.21479288 0.73100001 4294901502
-0.31386295 0.21567439 0.73400003 4294901502
-0.31145272 0.21596821 0.73500001 4294901502
-0.30861488 0.21596821 0.73500001 4294901502
-0.30577704 0.21596821 0.73500001 4294901502
-0.30293921 0.21596821 0.73500001 4294901502
-0.30010137 0.21596821 0.73500001 4294901502
-0.29645464 0.21538053 0.73299998 4294901502
-0.29522684 0.21655588 0.73699999 4294901502
-0.29277799 0.2168497 0.73799998 4294901502
-0.28835714 0.21567439 0.73400003 4294901502
-0.28552318 0.21567439 0.73400003 4294901502
-0.28307432 0.21596821 0.73500001 4294901502
-0.28099903 0.21655588 0.73699999 4294901502
-0.27966312 0.21773121 0.741 4294901502
-0.27717566 0.21802504 0.74199998 4294901502
-0.27357143 0.21743739 0.74000001 4294901502
-0.27071428 0.21743739 0.74000001 4294901502
-0.26749519 0.21714355 0.73900002 4294901502
-0.2660743 0.21831888 0.74299997 4294901502
-0.26355985 0.21861272 0.74400002 4294901502
-0.26068726 0.21861272 0.74400002 4294901502
-0.25712162 0.21802504 0.74199998 4294901502
-0.25357142 0.21743739 0.74000001 4294901502
-0.2524083 0.21890655 0.745 4294901502
-0.24953185 0.21890655 0.745 4294901502
-0.2466554 0.21890655 0.745 4294901502
-0.24312451 0.21831888 0.74299997 4294901502
-0.24025579 0.21831888 0.74299997 4294901502
-0.23770657 0.21861272 0.74400002 4294901502
-0.23388706 0.21773121 0.741 4294901502
-0.23102605 0.21773121 0.741 4294901502
-0.22754924 0.21714355 0.73900002 4294901502
-0.22334364 0.21861272 0.74400002 4294901502
-0.2210637 0.21920039 0.74599999 4294901502
-0.2181834 0.21920039 0.74599999 4294901502
-0.21530309 0.21920039 0.74599999 4294901502
-0.21242277 0.21920039 0.74599999 4294901502
-0.21010426 0.21978806 0.74800003 4294901502
-0.20721622 0.21978806 0.74800003 4294901502
-0.20405501 0.21949421 0.74699998 4294901502
-0.20090154 0.21920039 0.74599999 4294901502
-0.19749035 0.21861272 0.74400002 4294901502
-0.19461776 0.21861272 0.74400002 4294901502
-0.1932915 0.22037572 0.75 4294901502
-0.1901419 0.2200819 0.74900001 4294901502
-0.18799999 0.22096339 0.75199997 4294901502
-0.18485038 0.22066955 0.75099999 4294901502
-0.1817085 0.22037572 0.75 4294901502
-0.17905116 0.22066955 0.75099999 4294901502
-0.17615154 0.22066955 0.75099999 4294901502
-0.17394401 0.22155106 0.75400001 4294901502
-0.17035231 0.22066955 0.75099999 4294901502
-0.16722973 0.22037572 0.75 4294901502
-0.16389576 0.21978806 0.74800003 4294901502
-0.16122298 0.2200819 0.74900001 4294901502
-0.15811969 0.21978806 0.74800003 4294901502
-0.15523167 0.21978806 0.74800003 4294901502
-0.1537693 0.2218449 0.755 4294901502
-0.15065444 0.22155106 0.75400001 4294901502
-0.14793919 0.2218449 0.755 4294901502
-0.14502414 0.2218449 0.755 4294901502
-0.14210907 0.2218449 0.755 4294901502
-0.13937837 0.22213872 0.75599998 4294901502
-0.13627896 0.2218449 0.755 4294901502
-0.13318726 0.22155106 0.75400001 4294901502
-0.13027607 0.22155106 0.75400001 4294901502
-0.1266892 0.22037572 0.75 4294901502
-0.12395849 0.22066955 0.75099999 4294901502
-0.12154247 0.22155106 0.75400001 4294901502
-0.11863127 0.22155106 0.75400001 4294901502
-0.11602703 0.22213872 0.75599998 4294901502
-0.11310811 0.22213872 0.75599998 4294901502
-0.1104807 0.2227264 0.75800002 4294901502
-0.10712837 0.2218449 0.755 4294901502
-0.10490347 0.22331406 0.75999999 4294901502
-0.10156661 0.22243257 0.75700003 4294901502
-0.098513514 0.22213872 0.75599998 4294901502
-0.096100383 0.22331406 0.75999999 4294901502
-0.093043439 0.22302023 0.759 4294901502
-0.091300189 0.22595857 0.76899999 4294901502
-0.088560812 0.22654626 0.77100003 4294901502
-0.050360039 0.30059248 1.023 4282723080
-0.046410233 0.30059248 1.023 4282591238
-0.042667955 0.30206165 1.028 4281933574
-0.038962353 0.30411848 1.035 4281538050
-0.035067566 0.30500001 1.038 4281142529
-0.031239383 0.30676302 1.044 4280553474
-0.02728668 0.30764452 1.0470001 4280683522
-0.023377413 0.3094075 1.053 4281338625
-0.019385137 0.31058288 1.057 4281208321
-0.015347489 0.31146434 1.0599999 4281075969
-0.011297298 0.31263968 1.064 4280946436
-0.0073040538 0.31763488 1.081 4280879361
-0.0031361002 0.31822252 1.0829999 4281337601
0.0010482625 0.31910405 1.086 4281403650
0.0052702702 0.32086706 1.092 4281207042
0.0095212348 0.32204238 1.096 4281207304
0.013828185 0.32380539 1.102 4281142288
0.018181467 0.32556841 1.108 4281403906
0.022560811 0.32703757 1.113 4281273345
0.027027028 0.32909441 1.12 4280814082
0.031547297 0.33115125 1.127 4280488449
0.036121618 0.33320808 1.1339999 4280815617
0.040642858 0.33438343 1.138 4280945409
0.045155406 0.33526495 1.141 4281076225
0.049995176 0.33820328 1.151 4280945666
0.054675676 0.33967245 1.156 4280553217
0.059599418 0.34231696 1.165 4280683778
0.064482629 0.34437382 1.1720001 4281142017
0.069184363 0.34525529 1.175 4280945665
0.074222974 0.34760597 1.183 4280619009
0.079056956 0.34878132 1.187 4281339137
0.084485523 0.35230732 1.199 4281142017
0.089486487 0.35377648 1.204 4281206529
0.09452606 0.35524565 1.209 4280944385
0.099768333 0.35730249 1.216 4280748034
0.10497876 0.3590655 1.222 4281075971
0.11023553 0.36082852 1.228 4280814339
0.11684942 0.36670521 1.248 4281141762
0.12186293 0.36729288 1.25 4281010946
0.12739864 0.36934969 1.257 4281273347
0.13267279 0.37052506 1.261 4280944641
0.13830502 0.3725819 1.268 4281142273
0.14376545 0.37405106 1.273 4280879105
0.15113321 0.38022158 1.294 4281141761
0.15637065 0.38080925 1.296 4280747521
0.16249517 0.38345376 1.3049999 4280485121
0.1685608 0.38580441 1.313 4280092417
0.17455599 0.38786128 1.3200001 4280420353
0.18074131 0.39021194 1.3279999 4280747521
0.18754826 0.39373797 1.34 4281140737
0.19416024 0.3966763 1.35 4280420097
0.20070173 0.39932081 1.359 4280420100
0.20610039 0.39961466 1.36 4280420611
0.21290541 0.40255299 1.37 4280747777
0.21899131 0.40402216 1.375 4280682766
0.22462644 0.40460983 1.377 4279895558
0.22960907 0.40402216 1.375 4279239425
0.23491795 0.40402216 1.375 4278386948
0.36741892 0.59178227 2.0139999 4280097041
0.37947971 0.59854043 2.0369999 4282853665
0.38506275 0.59501445 2.0250001 4282657335
0.3928813 0.59501445 2.0250001 4282066976
0.40069982 0.59501445 2.0250001 4281674249
0.40851834 0.59501445 2.0250001 4282001410
0.41633689 0.59501445 2.0250001 4282395400
0.42415541 0.59501445 2.0250001 4282134532
0.42941409 0.59148842 2.013 4282067981
0.4371863 0.59148842 2.013 4282460433
0.44495851 0.59148842 2.013 4282327850
0.45025676 0.5882563 2.0020001 4282326841
0.4579865 0.5882563 2.0020001 4281932833
0.46571624 0.5882563 2.0020001 4281670950
0.47344598 0.5882563 2.0020001 4281801748
0.48285812 0.59031314 2.0090001 4281803286
0.49159169 0.59148842 2.013 4281933840
0.49762744 0.58943158 2.006 4281671946
0.50663221 0.59090072 2.0109999 4281542659
0.51183879 0.58796239 2.0009999 4281606921
0.51800674 0.5861994 1.995 4281998601
0.52729052 0.58796239 2.0009999 4281998601
0.53474903 0.5876686 2 4282588936
0.54084361 0.58590555 1.994 4281734916
0.55074328 0.5882563 2.0020001 4281473540
0.55847299 0.5882563 2.0020001 4281539076
0.5662027 0.5882563 2.0020001 4281670915
0.57393247 0.5882563 2.0020001 4280360710
0.57875675 0.58531791 1.992 4281016074
0.58585906 0.58473027 1.99 4281147172
0.59354246 0.58473027 1.99 4281212173
0.60122585 0.58473027 1.99 4281408771
0.60890925 0.58473027 1.99 4281342210
0.61659265 0.58473027 1.99 4281211923
0.62490344 0.58531791 1.992 4281474054
0.63450003 0.58708096 1.998 4281210113
0.63996428 0.58502412 1.9910001 4281211908
0.65122974 0.5882563 2.0020001 4281211917
0.65895951 0.5882563 2.0020001 4281013512
0.66369212 0.58561176 1.993 4281341969
0.67441893 0.5882563 2.0020001 4281015817
0.68214869 0.5882563 2.0020001 4281014822
0.69091219 0.58913779 2.0050001 4281211659
0.69760811 0.5882563 2.0020001 4280950032
0.70533788 0.5882563 2.0020001 4280883458
0.71306759 0.5882563 2.0020001 4280883462
0.71755695 0.58561176 1.993 4280884486
0.72416025 0.58473027 1.99 4281146117
0.73184365 0.58473027 1.99 4280228104
0.73952705 0.58473027 1.99 4280227089
0.74946332 0.58649325 1.9960001 4279637275
0.75944597 0.5882563 2.0020001 4281472258
0.76870853 0.58943158 2.006 4280621064
0.77258301 0.58649325 1.9960001 4280358924
0.77833498 0.58502412 1.9910001 4280882181
0.78128475 0.58149809 1.979 4280424705
0.78892565 0.58149809 1.979 4280359683
0.79455405 0.58002889 1.974 4280359940
0.80258209 0.58032274 1.975 4280294403
0.81184846 0.58149809 1.979 4279638544
0.81576258 0.57885355 1.97 4280292624
0.82336873 0.57885355 1.97 4280882710
0.82928765 0.5776782 1.966 4280619530
0.83772975 0.57826591 1.9680001 4280553730
0.84532821 0.57826591 1.9680001 4280553985
0.85292667 0.57826591 1.9680001 4280487943
0.86139965 0.57885355 1.97 4280094210
0.86635906 0.57709056 1.964 4280029716
0.8659324 0.57180154 1.946 4280159492
0.87344593 0.57180154 1.946 4279176706
0.88095945 0.57180154 1.946 4278914575
0.8934952 0.57503372 1.957 4279636225
0.90105116 0.57503372 1.957 4279767049
0.90860713 0.57503372 1.957 4280030239
0.91616315 0.57503372 1.957 4281940243
0.91852701 0.57180154 1.946 4283450923
-0.41358593 0.21582371 0.72500002 4294901502
-0.40738705 0.21403757 0.71899998 4294901502
-0.40292278 0.21314451 0.71600002 4294901502
-0.4007172 0.21344219 0.71700001 4294901502
-0.39794883 0.21344219 0.71700001 4294901502
-0.39573166 0.21373989 0.71799999 4294901502
-0.39344788 0.215526 0.72399998 4294901502
-0.39011294 0.21522832 0.72299999 4294901502
-0.38732141 0.21522832 0.72299999 4294901502
-0.38346621 0.21463296 0.72100002 4294901502
-0.37909845 0.21373989 0.71799999 4294901502
-0.37737453 0.21433526 0.72000003 4294901502
-0.3745946 0.21433526 0.72000003 4294901502
-0.3728475 0.21493064 0.722 4294901502
-0.37057239 0.21522832 0.72299999 4294901502
-0.36879829 0.21582371 0.72500002 4294901502
-0.36599904 0.21582371 0.72500002 4294901502
-0.36319983 0.21582371 0.72500002 4294901502
-0.36040059 0.21582371 0.72500002 4294901502
-0.3580946 0.21612139 0.72600001 4294901502
-0.35529152 0.21612139 0.72600001 4294901502
-0.35200292 0.21582371 0.72500002 4294901502
-0.34872201 0.215526 0.72399998 4294901502
-0.34497103 0.21493064 0.722 4294901502
-0.34218341 0.21493064 0.722 4294901502
-0.33660811 0.21493064 0.722 4294901502
-0.33428282 0.21522832 0.72299999 4294901502
-0.33103281 0.21493064 0.722 4294901502
-0.3286998 0.21522832 0.72299999 4294901502
-0.32635906 0.215526 0.72399998 4294901502
-0.32401064 0.21582371 0.72500002 4294901502
-0.32076833 0.215526 0.72399998 4294901502
-0.31797296 0.215526 0.72399998 4294901502
-0.31648359 0.21641907 0.727 4294901502
-0.31497106 0.21731214 0.73000002 4294901502
-0.31300771 0.21790752 0.73199999 4294901502
-0.30933398 0.21731214 0.73000002 4294901502
-0.30609554 0.21701445 0.72899997 4294901502
-0.30328089 0.21701445 0.72899997 4294901502
-0.29881757 0.21582371 0.72500002 4294901502
-0.29683495 0.21641907 0.727 4294901502
-0.29362357 0.21612139 0.72600001 4294901502
-0.2900193 0.215526 0.72399998 4294901502
-0.28920752 0.21701445 0.72899997 4294901502
-0.28678572 0.21731214 0.73000002 4294901502
-0.28357819 0.21701445 0.72899997 4294901502
-0.28037837 0.21671675 0.72799999 4294901502
-0.2771863 0.21641907 0.727 4294901502
-0.27513415 0.21701445 0.72899997 4294901502
-0.27269307 0.21731214 0.73000002 4294901502
-0.26950482 0.21701445 0.72899997 4294901502
-0.26669014 0.21701445 0.72899997 4294901502
-0.26423746 0.21731214 0.73000002 4294901502
-0.26249322 0.2182052 0.73299998 4294901502
-0.25860038 0.21731214 0.73000002 4294901502
-0.25543144 0.21701445 0.72899997 4294901502
-0.25227025 0.21671675 0.72799999 4294901502
-0.24808879 0.215526 0.72399998 4294901502
-0.24563225 0.21582371 0.72500002 4294901502
-0.24584749 0.21850289 0.73400003 4294901502
-0.24400675 0.21939595 0.73699999 4294901502
-0.24148841 0.21969363 0.73799998 4294901502
-0.23896237 0.21999134 0.73900002 4294901502
-0.23610908 0.21999134 0.73900002 4294901502
-0.23230888 0.21909827 0.736 4294901502
-0.22946718 0.21909827 0.736 4294901502
-0.22693339 0.21939595 0.73699999 4294901502
-0.22347973 0.21880059 0.73500001 4294901502
-0.22124228 0.21939595 0.73699999 4294901502
-0.21869305 0.21969363 0.73799998 4294901502
-0.21642858 0.22028902 0.74000001 4294901502
-0.2129942 0.21969363 0.73799998 4294901502
-0.20986004 0.21939595 0.73699999 4294901502
-0.20701447 0.21939595 0.73699999 4294901502
-0.20472299 0.21999134 0.73900002 4294901502
-0.20159651 0.21969363 0.73799998 4294901502
-0.1987471 0.21969363 0.73799998 4294901502
-0.19695945 0.22088438 0.74199998 4294901502
-0.19409458 0.22088438 0.74199998 4294901502
-0.19174518 0.22147977 0.74400002 4294901502
-0.18861872 0.22118208 0.74299997 4294901502
-0.1855 0.22088438 0.74199998 4294901502
-0.18288127 0.22118208 0.74299997 4294901502
-0.18025483 0.22147977 0.74400002 4294901502
-0.17809749 0.22237283 0.74699998 4294901502
-0.17497876 0.22207515 0.74599999 4294901502
-0.17255986 0.22267053 0.74800003 4294901502
-0.16899131 0.22177745 0.745 4294901502
-0.16611487 0.22177745 0.745 4294901502
-0.16323842 0.22177745 0.745 4294901502
-0.16014673 0.22147977 0.74400002 4294901502
-0.15685135 0.22088438 0.74199998 4294901502
-0.15419401 0.22118208 0.74299997 4294901502
-0.15152895 0.22147977 0.74400002 4294901502
-0.14905599 0.22207515 0.74599999 4294901502
-0.14617567 0.22207515 0.74599999 4294901502
-0.14329536 0.22207515 0.74599999 4294901502
-0.14022684 0.22177745 0.745 4294901502
-0.13845657 0.22356358 0.75099999 4294901502
-0.13555695 0.22356358 0.75099999 4294901502
-0.13265733 0.22356358 0.75099999 4294901502
-0.1290666 0.22237283 0.74699998 4294901502
-0.1258446 0.22177745 0.745 4294901502
-0.12263802 0.22118208 0.74299997 4294901502
-0.1200917 0.22177745 0.745 4294901502
-0.11737259 0.22207515 0.74599999 4294901502
-0.11525965 0.22356358 0.75099999 4294901502
-0.1119112 0.22267053 0.74800003 4294901502
-0.10946042 0.22356358 0.75099999 4294901502
-0.10656081 0.22356358 0.75099999 4294901502
-0.10393726 0.22415897 0.75300002 4294901502
-0.10102993 0.22415897 0.75300002 4294901502
-0.097861968 0.22356358 0.75099999 4294901502
-0.095215254 0.22415897 0.75300002 4294901502
-0.092553087 0.22475433 0.755 4294901502
-0.090469114 0.22683816 0.76200002 4294901502
-0.087527029 0.22683816 0.76200002 4294901502
-0.057576258 0.30096245 1.011 4282722844
-0.054150578 0.30364162 1.02 4282392335
-0.050360039 0.30453467 1.023 4281867268
-0.046410233 0.30453467 1.023 4281341443
-0.042667955 0.30602312 1.028 4281012737
-0.038962353 0.30810693 1.035 4280879873
-0.035067566 0.30899999 1.038 4281010433
-0.031149615 0.30989307 1.041 4281010696
-0.02728668 0.31167921 1.0470001 4281141262
-0.023399614 0.31376302 1.054 4281404419
-0.019385137 0.31465608 1.057 4281207297
-0.015390926 0.31644219 1.063 4281208065
-0.01138224 0.31912139 1.072 4281273090
-0.0072905407 0.3212052 1.079 4280749057
-0.0031332048 0.32209828 1.082 4280814849
0.0010482625 0.32328901 1.086 4281010690
0.0052702702 0.32507515 1.092 4281207553
0.0095212348 0.32626587 1.096 4281403399
0.013828185 0.32805201 1.102 4281337869
0.018197875 0.33013582 1.109 4281142785
0.022560811 0.3313266 1.113 4281076226
0.027027028 0.33341041 1.12 4280880390
0.031575289 0.33579192 1.128 4280814081
0.036121618 0.33757803 1.1339999 4281010689
0.040678572 0.33906651 1.1390001 4281076737
0.04519498 0.33995953 1.142 4281077510
0.049995176 0.34263873 1.151 4280945939
0.054675676 0.34412718 1.156 4280290052
0.059599418 0.34680635 1.165 4280682755
0.064482629 0.34889019 1.1720001 4281403649
0.069302127 0.35037863 1.177 4281274625
0.074222974 0.35216475 1.183 4280422913
0.079190157 0.35395086 1.189 4280750081
0.084485523 0.35692775 1.199 4280945924
0.089560814 0.3587139 1.205 4281010695
0.094369695 0.35930926 1.207 4280683521
0.099768333 0.36198843 1.216 4280814337
0.10480695 0.36317921 1.22 4281142529
0.11032528 0.36585838 1.229 4280946177
0.11684942 0.37151447 1.248 4281338369
0.12205791 0.37270519 1.252 4280945409
0.12739864 0.37419364 1.257 4280880642
0.13277799 0.37568206 1.262 4280748296
0.13830502 0.3774682 1.268 4281337609
0.14421718 0.3801474 1.277 4281010433
0.15078282 0.38431504 1.291 4281009921
0.15637065 0.38580346 1.296 4280812801
0.16249517 0.38848263 1.3049999 4280812545
0.1685608 0.39086416 1.313 4279896833
0.1749527 0.39384103 1.323 4280486145
0.18101352 0.39592487 1.33 4281140741
0.18754826 0.39890173 1.34 4281271299
0.1945917 0.40277168 1.353 4280551425
0.200111 0.40336707 1.355 4280157441
0.20610039 0.40485549 1.36 4280355847
0.21290541 0.40783238 1.37 4280683267
0.22074325 0.41259539 1.386 4280682756
0.22691023 0.41408384 1.391 4280026626
0.2322809 0.41408384 1.391 4279239425
0.36522976 0.59597111 2.0020001 4280162835
0.37929344 0.60609251 2.036 4282788640
0.38506275 0.60281795 2.0250001 4282395683
0.39482144 0.60579485 2.0350001 4282198806
0.40089768 0.60311562 2.026 4281936432
0.40851834 0.60281795 2.0250001 4282002193
0.41633689 0.60281795 2.0250001 4282395683
0.42206085 0.59984106 2.0150001 4282330628
0.42941409 0.59924567 2.013 4282003207
0.4371863 0.59924567 2.013 4282264074
0.44451639 0.59865028 2.0109999 4281935124
0.45273069 0.59924567 2.013 4281868576
0.46027416 0.598948 2.0120001 4281670939
0.4682751 0.59924567 2.013 4281539343
0.47581083 0.598948 2.0120001 4281605147
0.48381951 0.59924567 2.013 4281802535
0.49110326 0.59865028 2.0109999 4281606933
0.49762744 0.59716189 2.006 4281476625
0.50436491 0.59597111 2.0020001 4281739544
0.51209462 0.59597111 2.0020001 4281739551
0.51982433 0.59597111 2.0020001 4281935367
0.52781755 0.59626877 2.003 4281803522
0.5352838 0.59597111 2.0020001 4282195714
0.54301351 0.59597111 2.0020001 4281540110
0.55074328 0.59597111 2.0020001 4281605387
0.55847299 0.59597111 2.0020001 4281604620
0.5662027 0.59597111 2.0020001 4281669387
0.57393247 0.59597111 2.0020001 4281082378
0.58166218 0.59597111 2.0020001 4281408775
0.58791989 0.59448266 1.997 4281343756
0.59354246 0.59239882 1.99 4281474824
0.60122585 0.59239882 1.99 4281671429
0.60890925 0.59239882 1.99 4281277958
0.61659265 0.59239882 1.99 4281409807
0.62427604 0.59239882 1.99 4281343752
0.63195944 0.59239882 1.99 4281147138
0.63964283 0.59239882 1.99 4281212423
0.65122974 0.59597111 2.0020001 4281080607
0.65895951 0.59597111 2.0020001 4281014543
